-1.746597240188889344e-01 4.446270637553282473e-02 -1.783209813813042277e-01
-4.771070082137012225e-01 4.475945792539472862e-02 7.283805662974783546e-02
1.376969484178860448e-01 5.177227032881858565e-02 9.220312983128875484e-02
-4.501412980486122484e-01 -6.286120202312470151e-02 7.510986323993955023e-04
3.859628409249847569e-02 -8.850190610301868210e-02 1.767933036543047759e-02
-2.901413177630768891e-01 3.047059856963031210e-04 1.516432583010310087e-01
3.615874695912394549e-02 1.998790123746507080e-02 -6.157358554013953739e-02
-2.562852344457074438e-01 1.059294627177867210e-01 -7.361557881692921967e-02
-1.824987381602917735e-01 1.280965120837268822e-01 -2.419671647440289897e-02
3.511395629552217512e-01 -8.580875424358770653e-02 -1.606976263242538006e-01
-2.438693286875897037e-01 1.113266340848791253e-01 6.112163373624513590e-02
1.263356683330859598e-01 -1.388868002825713877e-01 -1.768856778260053386e-01
-2.054785420202803470e-01 -9.389297405916080530e-02 1.538618762045620425e-01
-8.846956789280684130e-02 -1.033040403436519261e-01 1.821437927285381175e-01
-6.800598539948883581e-02 -8.782812563246049364e-02 1.660329522384386136e-01
-6.657901842827855521e-02 -1.904346928677476403e-02 -1.104281974739071276e-01
4.678851886381583114e-01 -1.605953953919040528e-02 1.351276480871172088e-02
-4.592365428614169076e-01 -9.020817031117024654e-02 9.976990563765544828e-02
-1.200357776735181820e-01 4.245869120641705685e-02 3.084581225892441339e-02
-1.209556462391952469e-01 -1.889181032488098863e-02 -1.909016337741230585e-01
-2.686021600881126625e-01 1.061743310860389922e-02 -1.951167766892069055e-01
3.308370070840273014e-01 -3.037495475813188628e-02 1.555813710054697874e-01
-1.401845561077080630e-02 -7.364444329496243336e-02 2.111122501056881401e-02
-2.020240404186846306e-01 -8.555241997631637951e-02 1.590833796330053673e-01
-3.291196915804902590e-01 -1.071348868160412471e-01 -1.849952055698187159e-01
1.007104483270478829e-01 5.681374476439395721e-02 -1.975102206283490397e-02
4.293498079256884981e-01 -8.005942149509324979e-02 -1.445650222654826789e-01
3.789675287620077881e-01 -6.424806501142159287e-02 1.567449980501562090e-01
-1.146783037936978805e-01 -4.237530732211958889e-02 -1.514736178144848733e-01
-9.118720489036030719e-02 3.246495343606325967e-02 -1.013831333538187246e-01
-4.497125791275839446e-01 -8.486120569974185679e-02 9.481644455623078338e-02
2.266084386800142070e-01 -2.733589212078129868e-02 1.239029767524403164e-01
-3.756780383173677351e-01 -6.861521847308099664e-02 1.620474560058741617e-02
3.750944207303280598e-01 -8.371661308838654336e-02 -1.071597807046485024e-02
-2.493483389674735762e-01 -8.056588313874721297e-02 1.224444065398016396e-01
-5.412739690055156511e-02 -7.441528629921451143e-02 -5.627287261837558840e-02
8.502678065746155367e-02 9.660667738125798543e-02 1.269972380880128038e-01
4.009764226173182511e-01 2.218045993668564878e-02 -8.874375042380571593e-03
1.678951755449639982e-01 -8.931914074859105546e-02 1.224927844904087765e-01
4.995590371602946500e-01 -1.321288267943739325e-01 5.967180517656361233e-03
-4.336541521524330811e-01 5.022591659679053605e-02 1.474550462891856817e-01
4.592560638536323792e-01 -1.423542932879629484e-02 -1.034289020689874994e-01
2.959813282653164235e-01 3.839272613086235075e-02 6.531645474912577132e-02
1.694447200008259158e-01 2.251931581168137037e-03 1.889111288157656054e-01
-2.913987304630576425e-01 -7.629351260101589760e-02 3.501533317474601198e-02
-3.369108290780011838e-01 -1.062249023760790945e-01 1.949687234964377625e-01
4.041605389835896123e-01 -9.903512969631880769e-02 1.741743428238032576e-01
4.044959311220533427e-01 -6.405197406424560647e-02 1.757669497235376244e-01
3.792323245247767871e-01 -4.596096304578491110e-02 -1.834026067674998650e-01
1.475635444460507428e-01 -5.417042282420522076e-02 1.891236081654676382e-01
1.160731313754359423e-01 -2.519045787768538561e-02 3.317427442497222767e-02
1.010002170177963926e-01 -2.153514540824439522e-02 -1.902946862135777850e-01
-9.226005835997315441e-02 1.339169379027179141e-01 -3.535925299661187016e-02
-1.465033274377219585e-01 -3.483353476962953998e-02 -1.158491633039488433e-01
-2.625641924785683812e-01 -7.900182222532724230e-02 -6.142131438949497563e-02
2.819891320595968240e-02 -8.843618943974421165e-02 -7.820258559295109602e-02
-3.431521412297182660e-01 -5.411522953443093781e-02 -1.542598260671164678e-01
-4.475647980454650621e-01 5.392830699071372857e-02 -6.764690491781107096e-02
1.976063056863951450e-01 -9.689186942668610858e-02 1.331505355470307961e-01
-4.075282269153408521e-01 -4.294360233138071886e-02 1.864989708045173555e-01
-3.319048300259425099e-02 -5.735142619525198521e-02 2.331634834963992875e-02
-4.640933719000652768e-01 1.067021758676078985e-01 -1.542423482303506288e-01
-3.784581648436541879e-01 -6.839462856647925137e-02 -1.121461174553557878e-02
-5.118148328271007741e-02 -6.301307269542147371e-02 2.387086121393583796e-02
-2.298404699261599460e-01 -8.201661851543946835e-02 -6.758333147013184661e-02
-2.176764195372408173e-01 -1.135960515928224474e-01 1.778989606864812834e-01
3.478627867205431601e-01 -2.767879577425243556e-02 -1.596967141138920521e-01
4.703066676706750271e-01 -1.072272995625452030e-01 -1.588238709795902022e-03
-1.357033790565434772e-01 1.276027616296729339e-01 -1.121784086441212913e-01
1.460337233661272438e-01 -3.049185596773932444e-02 8.222969231531436496e-02
2.131063219078588311e-02 6.133283600180405165e-02 1.634394654638824385e-01
-2.710351959182741299e-01 -7.821235194854837813e-02 8.630935775010449562e-02
-1.238052025032872067e-01 -7.185488061047268227e-02 1.194993006056675570e-02
1.017240170990950515e-01 -6.815814094315490734e-02 -2.415985219889883392e-02
1.618173782578835318e-01 -3.790384817828136577e-02 -1.107828867895860048e-01
-8.110206067041320077e-02 -5.752403416959193938e-02 -1.080513260880595072e-01
-1.309931403132640615e-01 -8.743001483163820309e-02 8.910762782297936002e-02
-2.637507702771545171e-02 -5.914320374982263984e-02 -1.350953451658549465e-01
-8.241791988666913316e-02 -4.353261868945559692e-04 -7.767577176004254735e-02
-8.876217572933876865e-02 -3.334961300935131850e-02 1.014310008478444131e-01
-3.877511937701998979e-01 5.724122631672429878e-02 1.456751835476929324e-01
-2.359643173705183450e-01 8.426262949909446576e-02 1.502225350903457490e-01
-4.839500128929667966e-01 -1.129486160596390038e-02 1.311414875984215911e-01
1.277514914912291910e-01 -2.175023166550907328e-02 2.451294519090076868e-02
3.455090406920969803e-01 -8.393796427066270438e-02 -3.613440438377125974e-02
3.009174194070016184e-01 -4.564718527403351729e-04 -1.239018522707676234e-01
-1.968699440652014673e-02 1.324574222798755307e-01 -7.829739022646070579e-02
2.499289199832235853e-01 4.964372323380272095e-03 1.519055995200474796e-01
-2.151075781921192032e-01 1.241277271545162056e-02 1.898685624220426138e-01
-3.080958198097166201e-01 -6.486403758600672691e-03 -1.378680519945004179e-01
-3.272483249006774009e-01 6.357352268976694531e-02 1.033673955785293919e-01
1.155373474290299907e-01 -4.360535545883275667e-03 -1.898242251149653281e-01
-9.671334085922736468e-02 -1.156994294437114351e-02 -9.341761372782195205e-02
2.755136795511813341e-01 3.908660353203476795e-02 1.182604714190332862e-01
2.191100795587704736e-02 1.175188078714175105e-01 1.437527052154223724e-02
8.618808814237344240e-02 -4.043061801889658545e-03 6.066773938300507735e-02
3.617086713566486367e-01 -7.662218365937474573e-02 -1.772543099979816406e-01
2.731199324263845485e-01 -1.335919721863930987e-01 -1.607639993793308908e-01
3.842467340429568390e-01 2.581183704857253902e-02 3.044549208138676993e-02
-1.024843283925788162e-01 2.463187289925206601e-03 8.775459922198584894e-02
-3.456084672956685755e-01 -8.868635177842355832e-02 -1.671760881056215398e-01
4.450720598946635298e-01 -3.768784214265007843e-02 1.595596167667684695e-01
-1.815755572900638604e-01 -8.711030827309106106e-02 -1.425169682659790105e-01
-1.634794671581251413e-01 -3.568052559261496864e-02 1.136139452912760250e-01
-2.014241517963724637e-01 -8.410404794610323864e-02 1.884851626651515011e-01
1.709549321502294994e-01 4.116423612537070675e-02 -1.602629696057415176e-01
1.088305605671980730e-01 -8.894582239183647376e-02 -6.825260929245238750e-02
2.154010465937276075e-01 -8.481483328028101287e-02 1.306157714972654427e-01
-3.444086529001053609e-01 7.779402600815221724e-02 -3.336386881097733181e-02
1.954945702890468762e-01 4.821067731592122013e-02 -7.277897098915625529e-02
-1.843181196143652278e-01 -8.709297388666374651e-02 1.336126898626121412e-02
-7.861665800241757207e-02 -6.105910970039951646e-02 1.885279408440268256e-01
2.293379787866753339e-01 4.772646388199854733e-02 2.017883631132983552e-02
-3.510042789281701547e-01 7.177954853858484197e-02 -7.463502718204062525e-02
3.525612444812340485e-01 -7.747597128385076692e-02 1.239029767524403164e-01
4.640530914570280274e-02 -8.855126310639226117e-02 -7.598993887094737665e-02
-3.812755453047272369e-01 -6.816332994925927702e-02 -2.181866510603823516e-04
2.197316161920860600e-01 4.606373327268246248e-02 -9.458374394623349224e-02
1.594564472452208725e-01 6.421877536978227996e-02 -5.988233897281702856e-02
-3.184797040589298356e-01 1.721899877139426022e-02 -1.977051688130679608e-01
2.726865554623756904e-01 1.804249069168444800e-03 1.781137884792512727e-01
1.794418941840843773e-01 -8.939212187324389880e-02 -1.627203627210817294e-01
-1.460524811412898250e-01 -3.481104068782153727e-02 4.830325257749470969e-02
-1.162615539711450707e-01 -8.752312593729257018e-02 1.382905441967575977e-01
2.229704435554359376e-01 -1.005413255478824902e-01 1.643875016300203329e-01
1.930094755690216560e-02 -8.837994977889454540e-02 1.207087691276019226e-01
1.440890822277628436e-01 7.220295786620203882e-02 6.557484347892815479e-02
3.144961569202418539e-01 -8.067602072505678651e-03 -1.446786484540284745e-01
-2.131146565463876708e-01 -8.958435296346581311e-02 1.608226774801819192e-01
-1.967340782219596518e-01 1.263170055391955593e-01 3.597939892146866103e-02
2.732055127633824243e-02 7.272699189717442281e-02 1.574400039392119810e-01
-3.357794015531154891e-02 9.728027001341571500e-02 -1.433015054723496551e-01
1.232549502483857862e-01 -1.353902380309926767e-01 1.791445938879650535e-01
-9.912311892084012255e-02 6.093454347370997476e-02 1.040631512921944973e-01
-2.723750031359848389e-01 -5.369375109466063140e-02 1.208143999200374519e-01
1.833161012679481172e-01 4.699268454372931142e-02 1.162195763258867809e-01
-1.055404964340743851e-01 -1.259328132360903740e-01 -1.954138293610975796e-01
-1.137522796204222808e-01 -8.753898582527473715e-02 7.980146420746569991e-02
-4.939900997018353834e-01 -3.446337204665650411e-02 6.310660160063670532e-02
-3.438080853928615066e-01 -7.138702351210816921e-02 -2.272390857964079469e-02
3.968889213977435659e-01 1.744568464075942071e-02 -1.157148656539180864e-01
4.642958681258628761e-01 -1.619544483647285954e-02 -5.893745368310712718e-02
-1.703464083345603841e-01 -3.602313800357615642e-02 4.943434643262804851e-02
-3.396914732030277273e-01 -4.388633192734245347e-02 1.298622764683661779e-01
2.209940826161025107e-01 -1.634680898427620654e-02 1.897820278107550940e-01
-9.659752128745778543e-02 -1.187500609044061725e-02 -6.366629559339390121e-02
1.353129335496869867e-01 7.740624642323735982e-02 5.772778998771602860e-02
3.467535352828972073e-01 -8.009232125801171720e-02 1.508384539461565255e-01
2.173417949778336522e-01 -8.834552679505279504e-02 4.150353220889313466e-02
4.049951963959222412e-02 -8.851393551804533077e-02 -1.165217689071884697e-03
4.119010149005963850e-01 -8.378516656010212560e-02 4.082865094918541882e-02
-1.270347979698651930e-01 1.237974154806243121e-01 -1.277185124927683879e-01
3.182728616661939514e-01 3.190452125884179341e-02 -1.384606499663726120e-01
-9.358978191541442171e-02 -1.979724601391447125e-02 -7.118403066173283056e-02
-9.790418437048925560e-02 1.336455987692971858e-01 1.118393138727794417e-01
1.595261337716754324e-01 5.212081822574793355e-02 -4.894780892216774731e-02
-1.533806955177754727e-01 9.507153285299399514e-02 -1.457051009229179683e-01
-4.432077874268366274e-02 -8.797782816470994804e-02 1.091894341392796036e-01
-7.167954112648225636e-03 1.349307475349301455e-01 -7.385305503943921657e-02
-9.906340429781791690e-02 -8.181407971788802469e-02 1.163925599139637975e-03
-9.834167878795406492e-02 6.273866753984228039e-04 1.289030471197526451e-01
-4.494220588271732875e-01 9.982555069683027305e-02 1.083470127788720427e-01
4.312575782289052029e-01 -1.482731676504606133e-02 1.497194981868453512e-01
-1.862339689895809447e-01 -4.892391865833720099e-02 -2.034098145546392455e-01
2.149811879479824328e-01 -8.361461049882298879e-02 -1.546307040493008766e-01
4.668715973806875641e-01 -4.832194944531525288e-02 -6.505862187988505074e-02
2.322716349741310859e-01 1.270277363081391553e-02 -1.855218869852669761e-01
-4.920195795985458642e-01 1.088238175687305381e-01 -1.034386638327153413e-01
3.142027015120818501e-01 -8.300208877369490146e-02 1.547613769772441250e-01
-1.843724842376734396e-01 -3.672294124318754849e-02 -1.380768293905640098e-01
-3.355683096597018578e-01 -1.079743119693553216e-01 1.735486970044116950e-01
-2.805974623230210740e-01 9.519006989736085445e-02 9.500036457216205765e-02
3.018187614512500838e-01 -7.141146059402637969e-02 -1.565873288839313704e-01
4.208391367392561033e-02 -6.352360030795603518e-02 -1.881628300032790746e-01
2.751679786109063608e-01 -1.291613890721489688e-01 1.450228737424604508e-01
2.268586801059616909e-01 -1.056080489843976011e-01 -1.521126278654479635e-01
-1.225138477592995906e-01 -6.908477160573749110e-02 1.137738452200381389e-01
3.835808042878470769e-01 2.101104692809398558e-02 1.196365464817573665e-01
4.034869704443774241e-01 -8.375532316346875894e-02 2.018313584909280436e-02
1.854657668638471368e-01 -8.637494541982453089e-02 1.842770736606605120e-01
9.752350889546315682e-02 7.140115823376597115e-02 -1.550721960985911307e-01
2.767953282643115590e-02 -4.302393196477660026e-02 3.679909878230613884e-02
1.392199013067804969e-01 7.678688883770985740e-02 3.233571188399778779e-02
8.244836133892048669e-02 -8.877907349713565210e-02 1.507968593017318393e-01
-2.889744236348771866e-01 -1.019162187239232298e-02 -1.204102947187940115e-01
-4.288309580995732784e-01 3.141080286160397722e-02 -1.711166354956264457e-01
-1.520183897217806113e-01 -8.729712457979289797e-02 -1.681727107849184111e-01
-4.761534994852272273e-01 8.969280746491156697e-02 -1.084851990648388748e-01
9.797410577294582423e-02 -9.724513522039540669e-03 -1.015214403218814426e-01
-7.505850916194369005e-02 8.550651227387328843e-03 1.946558008624538205e-02
-1.561242902853784420e-01 1.359253732194840303e-01 2.885305085618182844e-02
3.136890265486557694e-01 -8.503111083757097788e-02 7.764727110898559347e-03
7.141313950156810697e-02 -7.228136750629338136e-02 2.561452146370077690e-02
-3.258201164314742382e-01 -2.224881142391529551e-02 1.654114499097996682e-01
-1.044796955812233030e-01 7.029231663360235166e-03 3.085919789543620229e-02
-1.601371411622359020e-01 -3.551376686580375031e-02 6.283395993750275077e-02
3.584591317267448729e-01 2.724573106827787167e-02 -1.139826514512123357e-01
-3.174378052157493801e-01 7.532545751976581216e-02 -1.294388965679641457e-01
2.825503487544024292e-02 1.280700389023604890e-01 -4.673085236798337622e-02
-1.222476645251999450e-01 4.971304466356064877e-02 7.117062935769885579e-02
-1.961323435138543070e-01 -3.730967609873035024e-02 -7.392147837568358026e-02
-1.155362583705745599e-01 1.382271607483396558e-01 4.566316006904743569e-02
-2.720538394763705736e-01 -8.559568826200081304e-02 -1.576359164353690057e-01
8.774161483291142982e-02 4.911987153262994954e-02 5.239792883709026156e-03
1.224365261258942850e-01 -8.903181900260494219e-02 6.902401066944849339e-02
-9.973727628585914162e-02 1.393642405454044164e-01 2.868210668756332807e-02
-7.171394799537654519e-02 -2.110888605038105034e-02 8.891795585750543462e-02
-2.390373573294824472e-01 -1.308774893622035584e-01 1.492323223022984924e-01
-2.826978408521672592e-01 9.521850109699170339e-02 -8.916704562467289708e-02
2.947595497535681064e-01 -9.778940601672625466e-02 1.577113449222379282e-01
4.504725742051036153e-01 -8.243198393693059248e-03 1.124105833993724046e-01
4.082707925747811051e-01 -5.293640132310513391e-02 -1.364444528369584964e-01
-3.163055583126636594e-01 -1.158403603096594681e-01 -1.885606541806706393e-01
-1.835126474223008619e-01 1.322996962958852551e-01 -1.450186270994922519e-02
-3.569119136451798235e-01 -7.023718425301159196e-02 7.869238576527828877e-02
-1.649530791783193617e-01 -3.575404854178376723e-02 -6.751383376537789527e-02
-4.405310042816923399e-01 9.965479192776753592e-02 -2.280584333506793446e-02
1.519624649805730587e-01 -8.921843792798038464e-02 -5.710407739267075317e-02
-1.409760551269619855e-01 1.418748707855817248e-02 1.893638470207856805e-01
-2.795038707408120104e-01 -7.739781043968593788e-02 3.068064495076876577e-02
-1.144403955742877427e-01 -8.753463658305500605e-02 -9.520295240876554266e-02
-7.519174113014916172e-02 -7.765771711800405208e-02 4.837224463166502064e-02
1.593672825881527477e-01 -5.458213145551293194e-02 -1.884607617645654154e-01
4.592649044663323354e-01 -5.408480320051262807e-02 -1.138262766463846443e-01
-1.089245452047719748e-01 -8.756949955806682395e-02 4.583474528654664371e-02
2.820679061921793629e-01 -8.576737555186866868e-02 -1.662490491636265388e-01
2.832393564376576856e-01 1.844338626071669041e-02 1.811071700836470733e-01
-4.108169862089916524e-01 -1.888563081201779376e-02 1.833175204110104317e-01
2.921764721370180840e-01 8.491354084975049135e-04 1.440362987649235760e-01
-2.054875114648978263e-01 -5.633528478674351692e-02 1.481925688134716756e-01
-1.017197509627142948e-01 -8.761503751591538658e-02 1.691294979742822002e-01
1.983288392274807355e-01 -8.502000066235256004e-02 1.741909287582525112e-01
1.751550753024093410e-01 5.743527377896544273e-02 3.433115150606051713e-02
1.943392351951121755e-02 1.291788955322894783e-01 -5.327698185741082393e-02
-2.666271568447576290e-01 -7.861613957298595190e-02 -9.392940630761835441e-02
3.331261739609965300e-01 -3.441762893206090634e-02 1.239029767524403025e-01
-2.620681130949302773e-01 -6.015209164021372013e-02 -1.642780582011017509e-01
3.738498838833320126e-01 2.245156006129664719e-02 -1.312862306875648977e-01
-4.498520459255662129e-01 1.558335591714781095e-02 1.633065135128223266e-01
4.297634015220200276e-01 -6.345978464743730341e-02 -3.481913649427869489e-02
1.917471308731444057e-01 4.202406039701904461e-02 -1.588379926288979727e-01
-1.016591150814967204e-01 -8.077923906767760232e-02 -1.837710385753738018e-01
-1.376810703863673435e-01 1.322134155094705221e-01 1.093456008449611092e-02
-3.846016055736026229e-01 -6.794511354101984146e-02 2.925187337367940107e-02
9.834968542678557135e-02 9.456782356756629482e-02 8.371352147069688332e-02
3.619967244522770966e-01 -9.307039298946220840e-02 1.550417389534411994e-01
3.173817050513298987e-01 -8.490885638845555028e-02 -1.170029695727068247e-01
4.165289836464540763e-01 -9.739912834353262050e-02 -1.306085133515290930e-01
2.788733296721463417e-01 -8.622884073741912681e-02 1.154862257749368452e-02
-2.038045288590739981e-02 -1.346764792643077857e-01 1.795832411320568700e-01
2.775976093759008334e-01 -6.167967941839869184e-02 1.239029767524403164e-01
-4.626075895667799975e-01 -8.499584732139928156e-02 -1.498892973069239076e-01
-2.549999354180517153e-01 6.335445073327049606e-03 -1.297958229581719358e-01
1.188996638054118649e-01 2.589250150028502701e-02 1.797996084287091512e-01
-5.466571605144956297e-02 -7.467891286874481227e-02 9.736987101097356601e-02
3.306524262597412833e-02 -4.761069384144598488e-02 6.668798553158357401e-02
-2.114878967282498856e-01 -4.406937695845624704e-03 1.249712311325817810e-01
1.955285615310405067e-01 -3.390052647575138300e-02 -1.899114034284297703e-01
5.282545572523320888e-03 2.905906311449836868e-02 1.816759808330046799e-01
3.563689052970737126e-01 -4.749260438158253717e-02 -1.485387504160281535e-01
7.488539657553293372e-02 1.025732814336613175e-01 1.212217977191065166e-01
2.363063795976849679e-01 2.929953431686967494e-02 1.740704814145754564e-01
-2.308659393064714793e-01 4.011456298146220956e-02 -9.672734679799790958e-02
-4.178078776164448338e-01 -7.457003468413031522e-02 1.158760705143435793e-01
-2.294503856158025268e-01 3.729557792588504561e-02 4.423090559069818573e-02
-2.393568460302166190e-01 -1.224869530380842120e-01 -1.297958229581719081e-01
-3.348759917044250578e-01 -8.686248100371367353e-02 1.224444065398016396e-01
1.498042028128725722e-01 7.045320546884248358e-02 -4.673237941994969058e-02
2.397308883527350665e-01 -1.435132590882152830e-02 -1.239018522707676234e-01
-2.795953570492456727e-02 -5.179970385935826066e-02 3.090299651313497750e-02
2.779504018333475157e-01 -8.626250307998947764e-02 -1.031705393584659292e-01
3.797819650232081568e-01 2.394462536651632140e-02 -8.093663320474765721e-02
2.303421135789856800e-01 4.587442353289606506e-02 -7.409208679078496673e-02
-2.493902669364238545e-01 7.021694645432548232e-02 -3.308729029559434598e-02
-6.919748442145623457e-02 -6.201751973752175906e-02 -1.884376697589540961e-01
2.436958297997670053e-01 -7.619941625958811561e-03 1.428777006627389157e-01
-4.842987640471169142e-01 -5.311320414356086178e-02 2.719731821284336257e-02
-1.953997381808829370e-02 -6.192586038059960662e-02 4.720751002655743794e-02
2.923375439712452839e-01 -8.576505503260872798e-02 -2.477297200603774049e-02
3.143712069405262266e-01 3.675469583805875823e-02 5.080922432276051975e-02
-4.473922456469699993e-01 9.729683518162338118e-02 9.708728466126508028e-02
1.207837783606571652e-01 6.005476418640563058e-02 -6.161566023420891186e-02
-3.587171409666695676e-01 -2.108169607935353115e-02 -1.996471209406339709e-01
1.348744133298114545e-01 5.411329384634957357e-02 3.359642265773246650e-02
-2.796647439428495696e-01 6.513289557045101597e-02 4.545740931655448125e-02
3.171457645477221421e-01 -3.421356039625850741e-03 -1.276284584231471564e-01
-1.792998095585415230e-01 1.281036567422208505e-01 3.404917992781978514e-02
-6.705910056961410237e-02 -2.003410393133286602e-02 4.731706937823827036e-02
-1.947653653589422329e-01 1.217519679154885348e-01 -1.100754062066381656e-01
-2.567597323711052204e-01 5.741284684248854076e-02 1.464987471173990197e-01
-1.219341268553190971e-01 7.447050797564504221e-02 -5.204288069127498140e-02
-4.678347201679604606e-01 1.001790028561240498e-01 -2.570887332619249677e-02
1.505659636713441163e-01 7.105173566678757435e-02 -2.373547057572899729e-02
-4.544071034185982461e-01 9.176459982466637910e-02 1.288182258631037080e-01
1.887487104761173262e-01 -7.178855819183918574e-02 1.872019032670919625e-01
1.626599494856533767e-01 -5.114522487563083475e-02 4.203949660759555805e-03
4.258368347809233234e-01 -8.383794071728306596e-02 -4.207669863937938542e-02
-2.922581988679003873e-01 5.233604837366536561e-02 -1.701462050396131409e-01
2.062129305336355134e-01 -4.215850639563257368e-02 -1.253979447841380990e-01
2.811104766117921150e-01 4.149111915898671260e-02 4.318606521460981867e-02
-7.880713000560915504e-02 -3.819888666305693015e-02 1.902962293747258726e-01
-2.224064129129572215e-02 -7.268064540137693375e-02 1.340451271816011647e-01
6.201873162218592833e-02 1.708838686304463977e-02 3.782427732222158438e-03
-3.828045482153967227e-01 6.451701843862117647e-02 -6.780233503857169275e-02
2.542613398110277201e-01 -7.897711523377941301e-02 1.758502353153378051e-01
1.121979186991953897e-01 8.404124080480199210e-02 -1.126667013129440675e-01
-4.578332252282945602e-01 8.934094549538096341e-02 -2.286569654315900174e-02
-4.228293550912590737e-01 5.869718225763468494e-02 5.193215579758417300e-02
-2.297327059571880603e-01 -1.136222665008345262e-01 -1.906357042768612176e-01
2.583719557199857381e-02 -5.937676517915662505e-02 -1.887318004485431522e-01
7.788499090163135408e-02 -1.571396372934156941e-03 1.305928794778958291e-01
-1.664018148539831432e-01 -1.112534116436170728e-01 1.962697764441148351e-01
3.145005513293726573e-01 3.373618864729331646e-02 -1.014261750255596867e-01
-2.214043057536798087e-01 1.202954184399509380e-01 -3.959411544916707076e-02
4.428929455921051805e-01 1.115663255347145799e-03 8.385880711361852480e-02
-3.888866846413702727e-01 -1.241776277078189966e-01 1.790480331048484308e-01
6.475359413090157890e-02 -1.303390632717763009e-01 -1.813432639476499908e-01
-3.718446937924322904e-01 -6.907663094632821021e-02 -1.510027069447583969e-01
1.826860838246074370e-01 -2.386729822216529170e-02 1.878969167746283586e-01
4.379800469515361394e-01 -1.072272995625452030e-01 -5.592194544331935413e-03
-9.133116713877380277e-02 -1.648640697245660341e-02 -1.907751165857967945e-01
3.617183872025301339e-01 -7.696785294187954984e-02 -1.243408988088593459e-01
1.982123059999066628e-01 -8.598906604009656784e-02 -1.582002551400617796e-01
-4.874090254184685334e-01 -3.239358733360256370e-02 1.255715128471223407e-01
1.085324156668260875e-01 6.306373840632531480e-02 -8.611603911224212371e-02
-5.678362801475829447e-02 -6.474800980834392872e-02 -1.324020037986837484e-01
1.632493014497964079e-01 -3.896628782983537626e-02 -1.441240049087704200e-01
-3.839826718234493064e-01 -6.986338187777609010e-02 7.907516484285945224e-02
-5.863966598963048921e-02 1.326199137709656306e-01 8.695588388754654785e-02
-3.070806453536254615e-02 -8.806386743036433151e-02 1.209761936065060633e-01
2.057918387649180225e-01 -8.874226477716529171e-02 3.136421937664793380e-02
4.781448000270363541e-02 -8.085789651575672754e-02 1.834873230160552204e-01
1.432243375425750476e-01 -1.554555219066513540e-02 1.901805117097788711e-01
-3.470222761063122552e-01 -5.890286376798776341e-02 1.996956764711837473e-01
2.190138750656862865e-01 -2.092931371080337943e-02 1.268267793663254428e-01
-4.016757872481034886e-01 6.238717251051675156e-02 -1.416654010430491197e-02
-2.388645069266764620e-01 -8.116748257501410491e-02 -1.178791752844008389e-01
-1.051363820596247500e-01 9.851771404013556777e-02 9.666146798202175650e-02
-2.639139870373830576e-01 1.000004214783628206e-02 -1.762867158615523677e-01
-4.324598214719190675e-02 -7.546029490539550577e-02 -2.351744165631554015e-02
-1.143128591442381797e-01 -4.353903936531052649e-02 1.200689100429610245e-01
1.634736014282034688e-01 -4.680388070104309767e-02 -1.376641377158375756e-01
-3.206420755877443241e-01 -7.355975021394067781e-02 -3.119484389976416583e-02
3.721630720244668566e-01 1.092680201462880793e-02 -1.692005521426647452e-01
4.928480763019390531e-01 -1.377926736261993468e-01 5.043607966326432712e-02
-9.052778020661622627e-02 -4.805990413469810735e-02 2.213016917136891720e-02
-1.207287543139893560e-01 -6.525553455823346338e-02 -8.494671980047448223e-02
2.118098929641236694e-01 3.038516540504321989e-02 -1.744392326290037099e-01
-2.826589726314577833e-01 1.031032785295319179e-02 -1.338721495586711330e-01
-5.098716394990943264e-03 1.359706441115580422e-01 -5.258391836753069370e-02
5.350208307557603737e-02 -6.481157528477618501e-02 -2.331096833322264875e-02
3.623544585450551780e-05 1.282875439883534585e-01 -1.101903358716939813e-01
-7.140150941328229917e-02 -4.078954095378761746e-02 -1.901498269355826054e-01
2.277170403731038628e-01 -3.029786729732282221e-04 -1.890180372355078908e-01
-3.133289664140470610e-02 7.587012367477793950e-02 1.562259031804575371e-01
-3.104885089518091834e-01 2.003234912332559764e-03 1.397632886813902631e-01
-2.864340449326486793e-01 -1.384402933764174448e-01 -1.620838614635378705e-01
2.941651760027146900e-01 -8.570634595274963241e-02 7.103633572586785794e-02
-1.246139827207142781e-01 6.971756122579859938e-02 -6.304984071206012897e-02
-3.296292175272773073e-01 -7.276124570499757638e-02 -6.198338396446915338e-02
-4.728143367946954778e-01 -1.788387188291543431e-02 -1.569961515067261892e-01
-3.701669594004703551e-02 -5.519447874774933288e-02 -1.891448730541459566e-01
-2.617385338462541178e-01 -6.216242681675442777e-02 -1.218868908529068124e-01
2.497132163884235312e-01 -4.546000053444959089e-03 -1.353055435327253087e-01
-4.437803687810904507e-01 5.315860946187130759e-02 1.129178352816291864e-01
-4.743497167653721314e-01 8.965816188048546242e-02 1.130563702120520181e-01
-3.358454809750451298e-01 6.130800471772831356e-02 1.496426751465411986e-01
-2.142785424606958589e-01 3.205422999250885901e-03 -3.548069021148315960e-02
-3.532071286341143534e-01 -7.061257058564932021e-02 -1.014744833406201613e-01
-1.222936193537091792e-01 -6.861235556958258930e-02 -1.220394703971376810e-01
2.538975505132168298e-01 -8.708722373705363173e-02 -7.530137248341335632e-02
-2.125376165854324928e-01 -1.543497851521469016e-03 -7.054611397474180000e-03
-1.100983171412164285e-01 8.947489407125892857e-02 -1.487859231448989406e-01
2.066990444217326195e-01 -4.226497892279963697e-02 -1.609171021420057190e-01
5.297973311594796758e-02 -9.106994938190869637e-02 1.821944469006663569e-01
2.186753443522330420e-01 -2.125177741904099929e-02 -1.503445311766681558e-01
-1.302302373830434012e-01 -8.743483676552163408e-02 3.961480631859432694e-02
-3.639306414889941638e-02 -8.095332442266563438e-05 -1.900234514487605941e-01
4.305357283454753214e-01 -8.300740360067242196e-02 -1.636618165981466311e-01
-2.248952298796264848e-01 2.826519614723800589e-02 -1.056495601712142962e-01
-2.870184129744556278e-01 6.511626547076801441e-02 1.617075181248350813e-02
-3.317941095741092083e-01 8.154058615205053706e-02 -5.086087923999413341e-02
-1.251893242703163989e-01 -7.482398587635634424e-02 -1.362994406393276403e-01
2.389426922945750084e-02 9.287225545854310704e-02 1.458525856713576707e-01
-2.918973674101941196e-01 -4.686286074129518420e-02 1.549237673406921867e-01
2.552911661813968558e-01 -1.358129293332958898e-01 -1.609038423676874829e-01
4.490577037605836264e-02 -3.687702399725428792e-02 -1.788270170090429032e-02
4.427932321956803419e-01 -1.116302207692029397e-01 -1.593257230154729587e-01
-3.862899596539025593e-01 -6.785379524348229829e-02 -5.889148883987384286e-02
6.282586566820363982e-02 1.123078405661287610e-01 -7.645222354479179472e-02
-4.385536026330857928e-01 8.897055277083520952e-02 2.180525516019901286e-03
-1.161783786021176046e-01 -6.857522571988979021e-02 -1.954139809854523735e-01
-1.756320600304093482e-01 -3.628685511203637998e-02 8.191598115116172085e-02
4.800057689037192099e-01 -1.102243259080483706e-01 4.933646093100690910e-02
2.092810762340649999e-01 -6.048423013541072424e-02 1.432455707604696482e-01
7.855092637044211457e-02 -6.666502641892796399e-02 -1.874952032245724987e-01
2.827748889632495377e-01 -3.568219295443567779e-02 1.239029767524403164e-01
-1.703047072870722822e-01 -8.718154576789108323e-02 -1.462693509629391930e-01
1.066118087767415623e-01 -1.376303011340497019e-02 -1.197384815642543593e-01
-6.972195672971369385e-02 -7.997933301370665007e-03 1.358995711883249635e-01
-4.897200840499781882e-01 -2.409738188384792298e-02 3.675627907080113166e-02
-4.542686463383156514e-01 -8.479609307090872627e-02 8.182283692091847638e-02
1.261164079592315933e-02 -6.028143737796580470e-02 -1.886381535733974435e-01
-4.719826963963973943e-01 1.074285704511508260e-01 -1.104412300078383147e-01
-2.853988520002618823e-01 -1.385765657673464768e-01 1.709995934059501954e-01
4.679468854426273028e-01 -8.939146092679615963e-02 -8.545540869773461667e-02
-4.185548454540283236e-01 -9.132313866988371609e-02 8.710917734282096203e-02
3.481692447888835029e-01 -8.385096326278039525e-02 -1.110275278848868868e-01
2.270121887782534653e-01 -8.801335129136371449e-02 5.065259901120137270e-02
4.227976518944309148e-01 -1.010836067928228554e-01 -1.673202516492759973e-01
1.893826037203692469e-01 -8.945495220491470056e-02 1.073369358060076856e-01
1.099310759879885413e-01 4.928120860821891963e-02 1.805491100337582866e-01
2.695211935217918867e-02 1.098287775646964066e-02 -3.997572986989971627e-02
8.546260697983458499e-02 5.479764134573942430e-02 -1.824690274941697110e-01
-4.750450131529788123e-01 -7.221813501310551942e-02 4.857998429946505659e-02
-7.946988203743816925e-02 -3.415211549865033308e-03 6.361804874645188290e-02
3.603872717594949759e-01 -8.370728572949204249e-02 -1.157295481752739080e-01
-3.405664548182298912e-01 -7.052899250955660393e-02 1.463949542289053329e-01
-3.217403617156631146e-01 7.659218520013989784e-02 1.175255338354671830e-01
-1.042308100568809515e-01 -8.759916634744843722e-02 -3.804073092902291592e-02
-2.193969167950353127e-01 1.716739285895266948e-02 -1.208092873626964714e-01
-4.425745782587419686e-01 5.410331052520469391e-02 9.769825135034831964e-02
9.760820227197614107e-02 9.819685102311406788e-02 -2.196770116120982941e-02
-9.579013995477464460e-02 4.228142867617200318e-02 -6.915295164209869783e-02
-1.960130954358084987e-01 1.188595927305863970e-01 1.197320322792692904e-01
1.505907847841876368e-01 -9.903375836162102430e-02 -1.821230762772506617e-01
-2.137117900670359172e-01 -9.102620689073487315e-02 1.794855835244729414e-01
-6.273263035713026736e-02 -8.786145591387749254e-02 -1.251387774565546895e-01
-2.067514517088711590e-01 -6.234698345339590581e-02 -1.217120147486647624e-01
-3.174062422952659279e-01 -2.659695013824751788e-03 -1.801191519112532169e-01
3.957079834467906038e-02 -3.960423567690612295e-02 -1.260156651424498009e-01
-1.309393457157609908e-01 9.975157438226713025e-02 -1.404936827735096261e-01
-2.216086683091463561e-01 2.174274280244998039e-02 -9.679223059361011239e-02
-4.709048045808549854e-01 -6.356993289558013349e-02 -1.467967347843239512e-01
-4.697484606200877377e-01 9.205949095847504315e-02 -5.480351356824687825e-02
-4.802199864865307199e-02 -5.374059443102107564e-02 -1.892894071732046934e-01
-3.080180114160433469e-01 -7.470052830940837607e-02 -2.633258863252022249e-03
7.612174591802348123e-02 1.085334412367720963e-01 -2.132888470448024085e-02
-4.899195933121006097e-02 1.392316804109567097e-01 1.718467409570133622e-02
-2.156091174203390304e-01 -9.560634817160933163e-02 -1.678215580626559733e-01
-5.791931021944468974e-04 -1.116074985052529361e-01 -1.820589378257733981e-01
1.632909992332355897e-01 5.166220323321039920e-02 5.781770518784391799e-02
8.526717710123525584e-02 4.419487449436947102e-02 -5.201440049327209734e-03
-1.637105866914355667e-01 -1.134090486594374614e-01 -1.961453669773945696e-01
-4.243940709889272300e-01 9.821815233870340167e-02 1.133021470155709254e-01
-2.163759673192907351e-01 1.191510837401692224e-01 -7.138223022476640478e-02
3.601947965883198766e-01 1.674113958845867625e-02 1.681206982774333947e-01
-9.233745571455791168e-02 -1.582961425784968831e-02 2.598929901850520821e-02
3.996061501756987822e-01 -5.985813727742152202e-02 -1.082719565446562254e-01
-1.464361754541659566e-01 -8.733240700833698467e-02 1.073873652996747141e-01
3.398000471407158773e-02 -2.971011932541677697e-02 -1.903595042569976858e-01
3.113053912806113543e-01 3.862023188945455654e-02 1.398443478198958985e-02
-5.969543622080734219e-02 9.379804862578021429e-02 -1.456278491560029087e-01
-2.846594532656273602e-01 -4.271828781814416415e-02 -1.548561977404794843e-01
3.155726860322992655e-01 -8.496649248244363128e-02 -3.993767807772572592e-02
-4.942664938750264414e-02 -7.333351695204987086e-02 -1.295450116343157820e-01
3.548175965764809314e-01 -1.699232576330559144e-02 -1.867442531582646781e-01
-1.224670465771338645e-01 4.191445050399506857e-03 -1.903649823124023144e-01
-9.940112751164696669e-02 -8.762969239340863414e-02 4.056128581849143683e-02
1.983299071541427816e-01 -8.334826374803469551e-02 1.578597307383225179e-01
1.876865596033402972e-01 5.316941445031415914e-02 1.419906808923188449e-02
3.335796294219185998e-01 -1.002441119887181875e-01 1.499020029044266511e-01
-8.808148814898529577e-02 2.619353815593764359e-02 4.926753539153180123e-02
-1.336922780186253490e-01 8.651995030327971903e-02 1.509768966835709769e-01
-2.454201058760599116e-02 -8.810284002213190913e-02 -1.370534786589613641e-01
-2.128234655688683308e-01 -1.072716754985117149e-01 1.525304038347438662e-01
7.099062258976172879e-02 -8.870665477056696724e-02 1.364511739912774302e-02
-1.283862680718495242e-01 -8.744649158784496834e-02 -4.865841843930209659e-02
-1.066747218848866086e-01 1.328744535294071882e-01 4.757219563494013981e-02
1.610939782810042187e-01 -6.346822338538800345e-02 1.027781540181341435e-01
4.364367264158425797e-01 -1.020039504403812691e-01 7.171716001696214204e-02
-2.277244327100053367e-01 3.387872735459437207e-02 -7.267931834359237127e-03
-2.665422037376652953e-01 -1.301931898831212298e-01 1.503916765837140512e-01
-2.395037610442929121e-01 -1.211194515482552636e-01 -1.479271763455664301e-01
4.402930868508416612e-02 6.025129713157176964e-02 1.636499557045392461e-01
2.970611591433454102e-01 3.864461418959656835e-02 -5.869149776616378739e-02
-2.668302485742574115e-01 1.055911095891707285e-01 3.920072377131483821e-02
-3.829346985744382786e-02 1.349830255518917055e-01 -1.310147092033832512e-02
-2.473118392545500810e-01 6.939933154504186741e-02 -1.176760435097866792e-01
-3.895598178060789007e-01 1.084812139994859558e-03 -1.906422624117881381e-01
3.321788488811964757e-01 -1.179626872986802993e-01 1.680253905583374285e-01
4.125320409448112180e-01 -5.845799844693591596e-02 1.091302732014767241e-01
9.734253295414684037e-02 8.994408145926341414e-02 -1.272432342808642314e-01
-7.374654686874505816e-02 4.577511392043739219e-02 -1.730394182284937243e-01
7.731478426437639329e-02 -4.707323849919754777e-02 -1.897380055496975249e-01
-1.197296099251215218e-01 -6.311225140422817292e-02 3.801624982076634574e-02
-2.392350823205215415e-01 5.946063694716977044e-02 3.904559494442746970e-02
-8.941730771412441381e-02 -2.375074232876710212e-02 -2.588425171399896113e-02
2.905067418115671596e-01 3.882973252491107863e-02 -7.005399911672570423e-02
2.324368561097640840e-01 -5.288641194446573601e-03 -1.443740893698083616e-01
4.473541580457371380e-01 -1.655566394307687872e-02 9.122850151342264124e-02
-4.101718894455865794e-01 -6.599463208529567082e-02 4.341710584981008092e-02
4.546500493617761096e-01 -4.651993267399662929e-02 5.824249929063769066e-02
-3.380265502808234568e-01 7.638122899578013436e-02 7.980332617326943434e-02
4.265373399281336964e-01 -5.293640132310513391e-02 -1.299534245764443208e-01
2.295971113929094476e-01 -1.081352575919409392e-02 -1.269376495591234277e-01
-3.466939370793967190e-01 4.582303955444987781e-02 -1.742030936271205255e-01
-3.164041357643572194e-01 -1.157647233906826667e-01 1.955489808075069613e-01
-1.680298131547637297e-01 1.315473106079620702e-01 7.912919001643001216e-02
-4.603823489697650428e-02 -6.672689406619902730e-02 1.155097946281854887e-01
-3.485024372880872190e-01 -7.695612115648517437e-02 1.911910654652006769e-01
4.520205555476106141e-01 -1.923830767669884242e-02 -9.640851056319507673e-02
2.547615258988644715e-01 3.385507000421380391e-02 -1.679347090637247908e-01
-9.216045413986104218e-02 3.487794123054148432e-02 1.015027235086604501e-01
-2.147809138875681201e-01 -1.098226247622619695e-01 -1.950557468510277781e-01
-4.626943513164989974e-01 -6.122000188086308692e-02 1.067579167779471039e-01
4.403911198837947572e-01 -6.325180690173523579e-02 -1.231382714882803958e-01
-4.495935809593142873e-01 8.502426575028594613e-02 1.514006823436118976e-01
4.579396128122589227e-01 -3.329543345199161702e-03 -1.939237128577017428e-03
1.503422318992767015e-01 -3.163632435220988665e-02 2.817901759284581129e-02
-1.304837135377241442e-01 1.369361747191679135e-01 5.573154888787758277e-02
2.026500161766933150e-01 -9.591495267684241322e-02 1.239029767524403025e-01
-4.465802991472188066e-01 9.977093827238679713e-02 -1.319708070528026744e-01
1.751131929915577048e-02 7.735262459939688806e-02 1.550571996820868381e-01
3.190132054746729062e-02 2.435784471693252379e-02 -1.053600381400248837e-01
2.503287560097793851e-01 -3.999604356259061494e-02 -1.576431888969568595e-01
1.139007235541335955e-01 -5.065720251410357755e-02 -2.797139599721579911e-02
-4.783832433925972460e-01 -6.531815619122713357e-02 3.762171323484117882e-03
-1.776089256323304111e-01 1.259353101429861732e-01 8.019264432191350322e-02
3.655424910590894250e-01 -1.293868735396285774e-01 -1.844902759055219998e-01
3.208651945782722836e-01 5.420575185499840708e-04 -1.898044760346546955e-01
2.452988389317379836e-01 -5.161865432968101852e-02 1.556761462795730466e-01
-2.728664528564408998e-02 1.339098549013974793e-01 -1.046241981820712069e-01
-7.656073892786558442e-03 -8.820956771588805978e-02 9.355151878793868669e-02
-4.827163195745786117e-01 -2.656169280445909789e-02 1.444449192922369063e-01
-2.500702662523729414e-01 -1.354478754459163270e-01 -1.409070930623837758e-01
-2.628479007304422299e-01 1.055913035656603077e-01 5.564903145195479461e-02
1.412054649985632765e-02 -4.322196745036131771e-02 1.206815723880801383e-01
3.456073931634674468e-01 -6.522332477209663582e-02 1.626430250818271528e-01
-7.827523845137607239e-02 -6.716473015438965966e-02 -1.145624353831493497e-01
6.518496292687326991e-03 9.132538447583683772e-02 -1.471157590424899964e-01
3.343019788431300654e-01 3.387435051832522054e-02 4.967221939144906423e-02
-5.540501614293855820e-02 7.021063024738440073e-02 1.598131980314422274e-01
-1.760020673727545337e-01 -8.714553555931142670e-02 3.139878950974740041e-02
-2.427731890838794870e-01 6.520073102986251312e-02 -8.190570369445454579e-02
-2.655259235729599543e-01 1.048518756332488117e-01 -5.383679389311138430e-02
1.361894587153005542e-01 -8.911874451963008870e-02 4.788893039440843269e-02
-2.474790579984960381e-01 -8.699758481781816322e-02 -1.576359164353690057e-01
4.185764195137246790e-02 -9.131477075760632833e-02 2.771947088347704452e-02
-3.725667723604708659e-01 -1.238305519245518904e-01 1.823568175205526332e-01
-1.385136410570594889e-01 -1.140998971552442814e-01 1.956880397526302717e-01
4.838026678195553321e-01 -1.372769807948041321e-01 9.570722523698749207e-02
-1.498218366008750579e-01 -8.731100791081822243e-02 -9.701544937513978395e-02
-1.201308710169822769e-01 4.266449239685571326e-02 -1.127166349644086463e-01
1.490414002871802979e-01 4.886808911974597353e-02 1.042925892391429188e-01
-3.515312181060961660e-01 -7.065402454118584197e-02 1.325993575586113457e-02
-2.511302412789315208e-01 7.259571968963421038e-03 1.301977152050844411e-01
-2.712504343157247644e-01 1.049500176141732882e-01 2.825260271642172916e-02
-3.744094673248616334e-01 -1.096821800545539904e-01 1.866506714109991139e-01
4.312636284092093986e-01 -8.900973338342446639e-02 -1.377944443403465447e-01
-8.526395303690967320e-03 -4.960873806630130417e-02 1.852062436630258491e-02
-5.010338565682097983e-02 -3.165414085008733808e-02 1.352607739161340306e-01
-1.951212468467722339e-01 1.223172637564479553e-01 9.540743448902479218e-02
4.545370610886210194e-01 -1.072272995625452030e-01 -3.203879114987945309e-02
9.074600450418560116e-02 9.686021676630852950e-02 1.015016264822853342e-01
3.403573371348236343e-01 -1.998459570687364378e-02 -1.580239645713809316e-01
-1.859692262654055739e-01 1.298746479999821346e-01 -5.989925810785719229e-02
3.608197184067936103e-01 2.739666458687724584e-02 1.045113479251900124e-01
1.382428801050144263e-01 4.548970885489544286e-02 1.636647073375055439e-01
-3.071640320549274272e-01 6.361815274859819458e-02 -1.019098053682405969e-01
1.890233746319359698e-01 -8.945268169467697483e-02 3.825413855003809149e-02
-4.407795552235335007e-02 1.331341215013016333e-01 7.427712697482824478e-02
9.031229623228523296e-02 -7.620321134751981140e-02 2.604092029153693907e-02
-2.150530626437280046e-01 5.318169497426050198e-03 1.272624345935503831e-02
-1.543434200751681307e-01 1.340690476482806759e-01 -7.060327483726865083e-02
2.086734000611359732e-03 -4.158662974376793608e-02 -2.537522945439768529e-02
-5.276730980774459179e-02 -8.792444179964734041e-02 7.235072880972191756e-02
-1.111115782103896249e-01 -9.135390398980636206e-02 -1.958265734868256946e-01
-2.642108839949920407e-01 7.197418803069484394e-02 1.327959488742040117e-01
-1.654430632667575618e-01 -1.366888466481811226e-01 1.918965171110939838e-01
-8.462164542329606021e-02 -8.772310622449827622e-02 -1.620154521129471004e-01
-4.618379633393176337e-02 -8.796605294758490234e-02 4.823661760517804903e-03
3.464689038793522524e-02 -6.026741386031839870e-02 -2.273451191691550424e-02
-4.604511247405904117e-01 8.325936106366757516e-02 1.541454917567224026e-01
-5.974163300870512228e-02 -5.373927683451188569e-02 -7.844075355733508281e-02
3.857225336852661002e-01 -8.375385338011862024e-02 8.449922456547508121e-02
1.422855410810394128e-01 -2.801501197248649003e-02 -8.442421426956042002e-03
-1.207729484738054720e-01 -6.535033626987256372e-02 6.794231716042432867e-02
-4.778621285501658544e-01 3.216540465967020201e-02 -1.075052003283491209e-01
-1.839303055789843766e-01 -8.709542506828017727e-02 -1.669290784957713492e-01
-7.436905909753666229e-03 1.334444011971440136e-01 2.152470226235388834e-02
-3.018645046843292379e-01 -7.536228369517335157e-02 1.091967771121227088e-01
3.895046204849121896e-01 -9.739912834353262050e-02 1.227866608806651161e-01
2.366204658859387133e-01 -8.768330947986160973e-02 1.211849597972291942e-01
-4.190828143774555925e-01 5.907785874302760865e-02 6.718073283162805109e-02
-2.005373345060085938e-02 -8.813120821256328896e-02 1.273455989498770667e-02
4.054210278466703343e-01 2.076092227731031817e-02 2.044663492495022231e-02
-3.191338862408323040e-02 -4.411807411909852289e-02 -1.380117763245960680e-02
-6.807001559767478227e-02 -7.610706271508142773e-02 -1.848880256572754954e-01
4.141608041537141460e-01 -6.722466393175444144e-02 7.279480119161203799e-02
-1.582387898567488294e-01 5.920794502948627941e-02 -1.683145960649538586e-01
1.608219858149991521e-01 2.863123546630906222e-02 -1.770573614397994433e-01
-4.662733819843340455e-01 8.950299663629938951e-02 1.443123478720356456e-01
-3.282880025614268171e-01 2.426645324651864263e-02 1.866459325874767483e-01
-4.308962288266463686e-02 -4.429712145996094613e-02 1.285148741200353717e-01
-2.377502000991860986e-01 5.705161872859753486e-02 -4.264743236735119881e-03
3.306371376817991703e-02 6.471859108264077509e-02 -1.615679483242309367e-01
7.815228780853934742e-02 9.786984251632520337e-02 -1.402150703671743159e-01
2.115917246197354662e-01 8.298733788306492110e-03 1.874334174085636739e-01
4.468606617493660060e-01 -9.188745552579802994e-03 -1.297633645633785027e-01
1.380468075857153032e-01 -8.913048390756114769e-02 -1.681825019804431276e-01
-9.824972707741533307e-02 -7.690647545003770347e-02 -1.423637320455445852e-02
5.705583821988338689e-02 1.140891832106392528e-01 -8.760222771463276048e-02
4.081361764834524064e-01 -3.937706275297303202e-03 1.643134877439069719e-01
-2.049457720395463645e-01 -2.225263278486613872e-02 2.336927728021951506e-02
2.598412043691308293e-01 -7.957579660310458436e-02 1.564595794808709417e-01
-1.244787180129007104e-01 6.907268629049603814e-02 6.402981386247552642e-02
-7.826690876733798097e-02 -1.230252638393475179e-01 -1.824865388872830840e-01
3.890500712193269064e-03 -8.828254793017197011e-02 4.989367667621902314e-02
2.957938328467052402e-02 -8.844491471157620022e-02 1.055535046978840347e-01
1.770985423203794151e-02 -8.836989326120277266e-02 1.604904688467184704e-01
5.626599773894980921e-02 -8.861358766507237972e-02 8.591350623853608037e-02
1.612972657372725716e-01 -6.159783901758428964e-02 6.606881821480656281e-02
3.619502152604118367e-02 1.813532776599127358e-02 1.870150590468135088e-01
2.542452099491216977e-01 -5.087963474908033940e-02 1.669882120954030436e-01
-8.583427426523261572e-02 -4.214997669753478560e-02 -4.947946460149567349e-02
2.290245638036763343e-01 4.667462275386675963e-02 -6.089458949726680309e-02
4.278940652680963130e-01 -9.739912834353262050e-02 -1.315806610137542076e-01
3.632013108130513566e-03 -4.257548763947976989e-02 -1.900200488348194883e-01
-4.818952331097123287e-01 -2.551970578392166386e-03 1.533508596812384155e-02
2.954941757770475630e-01 -7.023458442360835940e-02 -1.239018522707676234e-01
-6.822793768108875723e-02 -3.183193708422401430e-02 -1.356293793433694939e-01
-1.900077223019446260e-01 -1.884111881660098520e-02 2.049327495155177370e-01
-4.803976093985128926e-01 2.941899478111828156e-02 -7.062008749050899259e-03
-2.050212423543854579e-01 -2.204676385222151952e-02 1.059909793393574995e-01
-1.120538547140630392e-01 6.902385080477915769e-02 -5.088501782795795680e-02
